# .PCD v.7 - Point Cloud Data file format
VERSION .7
FIELDS x y z
SIZE 4 4 4
TYPE F F F
COUNT 1 1 1
WIDTH 2853
HEIGHT 1
POINTS 2853
DATA ascii
0.341 0.191 0.966
0.342 0.191 0.967
0.343 0.191 0
0.344 0.191 0.974
0.345 0.191 0.978
0.346 0.191 0.979
0.347 0.191 0.977
0.348 0.191 0.978
0.349 0.191 0.979
0.35 0.191 0.981
0.351 0.191 0.983
0.352 0.191 0.984
0.353 0.191 0.986
0.354 0.191 0.989
0.355 0.191 0.991
0.356 0.191 0.992
0.357 0.191 0.992
0.358 0.191 0.994
0.359 0.191 0.995
0.36 0.191 0.996
0.361 0.191 0.998
0.362 0.191 0.999
0.363 0.191 1.001
0.364 0.191 1.002
0.365 0.191 1.004
0.366 0.191 1.006
0.367 0.191 1.009
0.368 0.191 1.009
0.369 0.191 1.011
0.37 0.191 1.011
0.371 0.191 1.013
0.372 0.191 1.015
0.373 0.191 1.017
0.374 0.191 1.017
0.375 0.191 1.019
0.376 0.191 1.019
0.377 0.191 1.021
0.378 0.191 1.022
0.479 0.191 0
0.48 0.191 0
0.481 0.191 0
0.482 0.191 0.672
0.483 0.191 0.657
0.484 0.191 0.654
0.485 0.191 0.663
0.486 0.191 0.703
0.487 0.191 0.706
0.488 0.191 0.699
0.489 0.191 0.687
0.49 0.191 0.681
0.491 0.191 0.676
0.492 0.191 0.671
0.493 0.191 0.666
0.494 0.191 0.662
0.495 0.191 0.662
0.496 0.191 0.662
0.497 0.191 0.662
0.498 0.191 0.662
0.499 0.191 0.664
0.5 0.191 0.664
0.501 0.191 0.665
0.502 0.191 0.664
0.503 0.191 0.665
0.504 0.191 0.664
0.505 0.191 0.663
0.506 0.191 0.662
0.507 0.191 0.661
0.508 0.191 0.66
0.509 0.191 0.657
0.51 0.191 0.654
0.511 0.191 0.652
0.512 0.191 0.651
0 0.192 0.651
0.001 0.192 0.651
0.002 0.192 0.651
0.003 0.192 0.652
0.004 0.192 0.654
0.005 0.192 0.653
0.006 0.192 0.653
0.007 0.192 0.653
0.008 0.192 0.655
0.009 0.192 0.655
0.010 0.192 0.658
0.011 0.192 0.66
0.012 0.192 0.662
0.013 0.192 0.663
0.014 0.192 0.663
0.015 0.192 0.664
0.016 0.192 0.663
0.017 0.192 0.662
0.018 0.192 0.661
0.019 0.192 0.66
0.02 0.192 0.659
0.021 0.192 0.658
0.022 0.192 0.658
0.023 0.192 0
0.024 0.192 0.658
0.025 0.192 0.657
0.026 0.192 0.659
0.027 0.192 0
0.028 0.192 0.66
0.029 0.192 0.661
0.03 0.192 0.662
0.031 0.192 0.663
0.032 0.192 0.664
0.033 0.192 0.667
0.034 0.192 0.67
0.035 0.192 0.672
0.036 0.192 0.674
0.037 0.192 0.674
0.038 0.192 0.674
0.039 0.192 0.674
0.04 0.192 0.674
0.041 0.192 0.672
0.042 0.192 0.671
0.043 0.192 0
0.044 0.192 0.669
0.045 0.192 0.668
0.046 0.192 0.67
0.047 0.192 0.67
0.048 0.192 0.671
0.049 0.192 0.671
0.05 0.192 0.672
0.051 0.192 0.673
0.052 0.192 0
0.053 0.192 0
0.054 0.192 0
0.055 0.192 0
0.056 0.192 0
0.057 0.192 0
0.058 0.192 0
0.059 0.192 0.67
0.06 0.192 0.669
0.061 0.192 0
0.062 0.192 0
0.063 0.192 0.662
0.064 0.192 0.662
0.065 0.192 0.661
0.066 0.192 0.658
0.067 0.192 0.656
0.068 0.192 0.657
0.069 0.192 0.656
0.07 0.192 0.655
0.071 0.192 0.653
0.072 0.192 0
0.073 0.192 0.652
0.074 0.192 0
0.075 0.192 0
0.076 0.192 0
0.077 0.192 0
0.078 0.192 0
0.079 0.192 0.646
0.08 0.192 0.644
0.081 0.192 0
0.082 0.192 0
0.083 0.192 0
0.084 0.192 0
0.085 0.192 0
0.086 0.192 0
0.087 0.192 0
0.088 0.192 0
0.089 0.192 0
0.09 0.192 0
0.091 0.192 0
0.092 0.192 0
0.093 0.192 0
0.094 0.192 0
0.095 0.192 0
0.096 0.192 0
0.097 0.192 0
0.098 0.192 0
0.099 0.192 0
0.1 0.192 0
0.101 0.192 0
0.102 0.192 0
0.103 0.192 0
0.104 0.192 0
0.105 0.192 0.632
0.106 0.192 0
0.107 0.192 0
0.108 0.192 0
0.109 0.192 0.634
0.11 0.192 0
0.111 0.192 0
0.112 0.192 0.64
0.113 0.192 0
0.114 0.192 0
0.115 0.192 0
0.116 0.192 0.642
0.117 0.192 0.643
0.118 0.192 0.643
0.119 0.192 0.645
0.12 0.192 0.647
0.121 0.192 0.649
0.122 0.192 0.65
0.123 0.192 0.649
0.124 0.192 0.651
0.125 0.192 0.653
0.126 0.192 0.656
0.127 0.192 0.658
0.128 0.192 0.66
0.129 0.192 0.66
0.13 0.192 0.662
0.131 0.192 0.663
0.132 0.192 0.665
0.133 0.192 0.664
0.134 0.192 0.666
0.135 0.192 0.668
0.136 0.192 0.672
0.137 0.192 0.673
0.138 0.192 0.674
0.139 0.192 0.676
0.14 0.192 0.679
0.141 0.192 0.681
0.142 0.192 0.683
0.143 0.192 0.683
0.144 0.192 0.685
0.145 0.192 0.685
0.146 0.192 0.686
0.147 0.192 0.686
0.148 0.192 0.688
0.149 0.192 0.689
0.15 0.192 0.691
0.151 0.192 0.692
0.152 0.192 0.693
0.153 0.192 0.693
0.154 0.192 0.694
0.155 0.192 0.695
0.156 0.192 0.698
0.157 0.192 0.698
0.158 0.192 0.698
0.159 0.192 0.697
0.16 0.192 0.695
0.161 0.192 0.695
0.162 0.192 0
0.163 0.192 0.696
0.164 0.192 0.697
0.165 0.192 0.697
0.166 0.192 0.698
0.167 0.192 0.698
0.168 0.192 0.7
0.169 0.192 0.699
0.17 0.192 0.697
0.171 0.192 0.697
0.172 0.192 0.699
0.173 0.192 0.7
0.174 0.192 0.697
0.175 0.192 0.692
0.176 0.192 0.687
0.177 0.192 0.681
0.178 0.192 0.675
0.179 0.192 0.673
0.18 0.192 0.672
0.181 0.192 0.669
0.182 0.192 0.67
0.183 0.192 0.67
0.184 0.192 0.672
0.185 0.192 0.671
0.186 0.192 0.671
0.187 0.192 0.671
0.188 0.192 0.672
0.189 0.192 0.672
0.19 0.192 0.669
0.191 0.192 0.667
0.192 0.192 0.666
0.193 0.192 0.667
0.194 0.192 0.668
0.195 0.192 0.668
0.196 0.192 0.668
0.197 0.192 0.668
0.198 0.192 0.668
0.199 0.192 0.668
0.2 0.192 0.669
0.201 0.192 0.669
0.202 0.192 0.673
0.203 0.192 0.676
0.204 0.192 0.68
0.205 0.192 0.681
0.206 0.192 0.682
0.207 0.192 0.68
0.208 0.192 0.679
0.209 0.192 0.68
0.21 0.192 0.681
0.211 0.192 0.681
0.212 0.192 0.679
0.213 0.192 0.679
0.214 0.192 0.678
0.215 0.192 0.679
0.216 0.192 0.679
0.217 0.192 0.679
0.218 0.192 0.679
0.219 0.192 0.677
0.22 0.192 0.679
0.221 0.192 0.68
0.222 0.192 0.682
0.223 0.192 0.684
0.224 0.192 0.686
0.225 0.192 0.686
0.226 0.192 0.686
0.227 0.192 0.686
0.228 0.192 0.686
0.229 0.192 0.687
0.23 0.192 0.69
0.231 0.192 0.692
0.232 0.192 0.694
0.233 0.192 0.695
0.234 0.192 0.699
0.235 0.192 0.705
0.236 0.192 0.717
0.237 0.192 0
0.238 0.192 0
0.239 0.192 0
0.24 0.192 0
0.241 0.192 0
0.242 0.192 0
0.243 0.192 0
0.244 0.192 0.727
0.245 0.192 0.718
0.246 0.192 0.706
0.247 0.192 0.686
0.248 0.192 0.671
0.249 0.192 0.658
0.25 0.192 0.653
0.251 0.192 0.647
0.252 0.192 0.637
0.253 0.192 0.617
0.254 0.192 0.609
0.255 0.192 0.619
0.256 0.192 0.634
0.257 0.192 0.615
0.258 0.192 0
0.259 0.192 0.627
0.26 0.192 0.638
0.261 0.192 0.677
0.262 0.192 0.696
0.263 0.192 0.671
0.264 0.192 0.638
0.265 0.192 0.676
0.266 0.192 0.647
0.267 0.192 0.652
0.268 0.192 0
0.269 0.192 0
0.27 0.192 0.645
0.271 0.192 0.641
0.272 0.192 0
0.273 0.192 0
0.274 0.192 0
0.275 0.192 0
0.276 0.192 0
0.277 0.192 0
0.278 0.192 0
0.28 0.192 0
0.281 0.192 0
0.282 0.192 0
0.283 0.192 0
0.284 0.192 0
0.285 0.192 0.638
0.286 0.192 0
0.287 0.192 0
0.288 0.192 0.629
0.289 0.192 0
0.29 0.192 0
0.291 0.192 0
0.292 0.192 0
0.293 0.192 0
0.294 0.192 0
0.295 0.192 0
0.296 0.192 0
0.297 0.192 0
0.298 0.192 0
0.299 0.192 0
0.3 0.192 0
0.301 0.192 0
0.302 0.192 0
0.303 0.192 0
0.304 0.192 0
0.305 0.192 0
0.306 0.192 0
0.307 0.192 0
0.308 0.192 0
0.309 0.192 0
0.31 0.192 0
0.311 0.192 0
0.312 0.192 0
0.313 0.192 0
0.314 0.192 0
0.315 0.192 0
0.316 0.192 0
0.317 0.192 0
0.318 0.192 0
0.319 0.192 0
0.32 0.192 0
0.321 0.192 0.94
0.322 0.192 0.942
0.323 0.192 0.943
0.324 0.192 0.948
0.325 0.192 0.951
0.326 0.192 0.951
0.327 0.192 0.949
0.328 0.192 0.951
0.329 0.192 0.956
0.33 0.192 0.957
0.331 0.192 0.958
0.332 0.192 0.956
0.333 0.192 0.96
0.334 0.192 0.962
0.335 0.192 0.963
0.336 0.192 0.965
0.337 0.192 0.965
0.338 0.192 0.965
0.339 0.192 0.966
0.34 0.192 0.966
0.341 0.192 0.967
0.342 0.192 0.969
0.343 0.192 0.973
0.344 0.192 0.975
0.345 0.192 0.977
0.346 0.192 0.976
0.347 0.192 0.979
0.348 0.192 0.979
0.349 0.192 0.981
0.35 0.192 0.982
0.351 0.192 0.984
0.352 0.192 0.986
0.353 0.192 0.988
0.354 0.192 0.989
0.355 0.192 0.989
0.356 0.192 0.991
0.357 0.192 0.994
0.358 0.192 0.996
0.359 0.192 0.997
0.36 0.192 0.997
0.361 0.192 0.999
0.362 0.192 1.002
0.363 0.192 1.003
0.364 0.192 1.005
0.365 0.192 1.005
0.366 0.192 1.008
0.367 0.192 1.009
0.368 0.192 1.01
0.369 0.192 1.01
0.37 0.192 1.011
0.371 0.192 1.013
0.372 0.192 1.015
0.373 0.192 1.017
0.374 0.192 1.019
0.375 0.192 1.019
0.376 0.192 1.02
0.377 0.192 1.021
0.378 0.192 1.023
0.478 0.192 0
0.479 0.192 0
0.48 0.192 0
0.481 0.192 0.653
0.482 0.192 0.651
0.483 0.192 0.657
0.484 0.192 0.689
0.485 0.192 0.709
0.486 0.192 0.701
0.487 0.192 0.692
0.488 0.192 0.682
0.489 0.192 0.679
0.49 0.192 0.673
0.491 0.192 0.668
0.492 0.192 0.662
0.493 0.192 0.658
0.494 0.192 0.658
0.495 0.192 0.658
0.496 0.192 0.66
0.497 0.192 0.66
0.498 0.192 0.662
0.499 0.192 0.662
0.5 0.192 0.663
0.501 0.192 0.663
0.502 0.192 0.663
0.503 0.192 0
0.504 0.192 0.662
0.505 0.192 0.662
0.506 0.192 0.662
0.507 0.192 0.661
0.508 0.192 0.658
0.509 0.192 0.653
0.51 0.192 0.651
0.511 0.192 0.65
0.512 0.192 0.649
0 0.193 0.65
0.001 0.193 0
0.002 0.193 0.651
0.003 0.193 0.651
0.004 0.193 0.652
0.005 0.193 0.651
0.006 0.193 0.652
0.007 0.193 0.654
0.008 0.193 0.655
0.009 0.193 0.657
0.010 0.193 0.659
0.011 0.193 0.661
0.012 0.193 0.663
0.013 0.193 0.663
0.014 0.193 0.664
0.015 0.193 0.662
0.016 0.193 0.661
0.017 0.193 0.66
0.018 0.193 0.659
0.019 0.193 0.658
0.02 0.193 0
0.021 0.193 0
0.022 0.193 0.658
0.023 0.193 0.658
0.024 0.193 0.658
0.025 0.193 0
0.026 0.193 0
0.027 0.193 0.659
0.028 0.193 0.659
0.029 0.193 0.659
0.03 0.193 0.66
0.031 0.193 0.662
0.032 0.193 0.665
0.033 0.193 0.668
0.034 0.193 0.67
0.035 0.193 0.672
0.036 0.193 0.673
0.037 0.193 0.673
0.038 0.193 0.673
0.039 0.193 0.673
0.04 0.193 0.673
0.041 0.193 0.67
0.042 0.193 0.667
0.043 0.193 0.667
0.044 0.193 0.667
0.045 0.193 0.668
0.046 0.193 0.668
0.047 0.193 0.669
0.048 0.193 0.669
0.049 0.193 0.67
0.05 0.193 0.672
0.051 0.193 0.673
0.052 0.193 0.673
0.053 0.193 0
0.054 0.193 0
0.055 0.193 0
0.056 0.193 0
0.057 0.193 0
0.058 0.193 0
0.059 0.193 0
0.06 0.193 0
0.061 0.193 0
0.062 0.193 0
0.063 0.193 0
0.064 0.193 0
0.065 0.193 0
0.066 0.193 0
0.067 0.193 0
0.068 0.193 0
0.069 0.193 0
0.07 0.193 0.661
0.071 0.193 0.66
0.072 0.193 0.659
0.073 0.193 0
0.074 0.193 0.659
0.075 0.193 0.657
0.076 0.193 0.655
0.077 0.193 0.653
0.078 0.193 0.654
0.079 0.193 0.653
0.08 0.193 0.651
0.081 0.193 0.647
0.082 0.193 0.645
0.083 0.193 0
0.084 0.193 0
0.085 0.193 0
0.086 0.193 0
0.087 0.193 0
0.088 0.193 0
0.089 0.193 0
0.09 0.193 0
0.091 0.193 0
0.092 0.193 0
0.093 0.193 0
0.094 0.193 0
0.095 0.193 0
0.096 0.193 0
0.097 0.193 0
0.098 0.193 0
0.099 0.193 0
0.1 0.193 0
0.101 0.193 0
0.102 0.193 0
0.103 0.193 0
0.104 0.193 0
0.105 0.193 0
0.106 0.193 0
0.107 0.193 0
0.108 0.193 0
0.109 0.193 0
0.11 0.193 0
0.111 0.193 0
0.112 0.193 0
0.113 0.193 0
0.114 0.193 0
0.115 0.193 0.641
0.116 0.193 0
0.117 0.193 0.644
0.118 0.193 0.646
0.119 0.193 0.648
0.12 0.193 0.65
0.121 0.193 0.65
0.122 0.193 0.651
0.123 0.193 0.652
0.124 0.193 0.654
0.125 0.193 0.656
0.126 0.193 0.658
0.127 0.193 0.658
0.128 0.193 0.659
0.129 0.193 0.661
0.13 0.193 0.664
0.131 0.193 0.664
0.132 0.193 0.665
0.133 0.193 0.665
0.134 0.193 0.668
0.135 0.193 0.671
0.136 0.193 0.672
0.137 0.193 0.673
0.138 0.193 0.676
0.139 0.193 0.68
0.14 0.193 0.681
0.141 0.193 0.681
0.142 0.193 0.682
0.143 0.193 0.685
0.144 0.193 0.686
0.145 0.193 0.686
0.146 0.193 0.686
0.147 0.193 0.687
0.148 0.193 0.688
0.149 0.193 0.689
0.15 0.193 0.69
0.151 0.193 0.689
0.152 0.193 0.688
0.153 0.193 0.69
0.154 0.193 0.692
0.155 0.193 0.697
0.156 0.193 0.697
0.157 0.193 0.697
0.158 0.193 0.696
0.159 0.193 0.696
0.16 0.193 0.695
0.161 0.193 0.694
0.162 0.193 0.695
0.163 0.193 0
0.164 0.193 0.694
0.165 0.193 0.695
0.166 0.193 0.695
0.167 0.193 0.697
0.168 0.193 0.697
0.169 0.193 0.698
0.17 0.193 0.699
0.171 0.193 0.7
0.172 0.193 0.698
0.173 0.193 0.693
0.174 0.193 0.689
0.175 0.193 0.684
0.176 0.193 0.679
0.177 0.193 0.675
0.178 0.193 0.672
0.179 0.193 0.67
0.18 0.193 0.668
0.181 0.193 0.668
0.182 0.193 0.669
0.183 0.193 0.67
0.184 0.193 0.669
0.185 0.193 0.668
0.186 0.193 0.669
0.187 0.193 0.671
0.188 0.193 0.67
0.189 0.193 0.67
0.19 0.193 0.668
0.191 0.193 0.666
0.192 0.193 0.665
0.193 0.193 0.665
0.194 0.193 0.667
0.195 0.193 0.667
0.196 0.193 0.668
0.197 0.193 0.668
0.198 0.193 0.668
0.199 0.193 0.668
0.2 0.193 0.668
0.201 0.193 0.672
0.202 0.193 0.676
0.203 0.193 0.678
0.204 0.193 0.68
0.205 0.193 0.68
0.206 0.193 0.68
0.207 0.193 0.679
0.208 0.193 0.681
0.209 0.193 0.681
0.21 0.193 0.681
0.211 0.193 0.678
0.212 0.193 0.678
0.213 0.193 0.678
0.214 0.193 0.679
0.215 0.193 0.678
0.216 0.193 0.678
0.217 0.193 0.677
0.218 0.193 0.678
0.219 0.193 0.68
0.22 0.193 0.68
0.221 0.193 0.681
0.222 0.193 0.682
0.223 0.193 0.684
0.224 0.193 0.685
0.225 0.193 0.686
0.226 0.193 0.686
0.227 0.193 0.685
0.228 0.193 0.686
0.229 0.193 0.688
0.23 0.193 0.69
0.231 0.193 0.692
0.232 0.193 0.693
0.233 0.193 0.695
0.234 0.193 0.697
0.235 0.193 0.702
0.236 0.193 0.711
0.237 0.193 0.729
0.238 0.193 0
0.239 0.193 0
0.24 0.193 0
0.241 0.193 0
0.242 0.193 0
0.243 0.193 0.726
0.244 0.193 0.717
0.245 0.193 0.709
0.246 0.193 0.689
0.247 0.193 0.673
0.248 0.193 0.659
0.249 0.193 0.656
0.25 0.193 0.648
0.251 0.193 0.638
0.252 0.193 0.62
0.253 0.193 0.599
0.254 0.193 0.611
0.255 0.193 0.621
0.256 0.193 0.621
0.257 0.193 0.655
0.258 0.193 0.654
0.259 0.193 0.647
0.26 0.193 0.64
0.261 0.193 0.68
0.262 0.193 0.643
0.263 0.193 0.68
0.264 0.193 0.643
0.265 0.193 0.615
0.266 0.193 0
0.267 0.193 0
0.268 0.193 0.557
0.269 0.193 0
0.27 0.193 0.641
0.271 0.193 0.645
0.272 0.193 0
0.273 0.193 0
0.274 0.193 0
0.275 0.193 0.663
0.276 0.193 0.687
0.277 0.193 0
0.278 0.193 0
0.279 0.193 0
0.28 0.193 0
0.281 0.193 0
0.282 0.193 0
0.283 0.193 0
0.284 0.193 0
0.285 0.193 0
0.286 0.193 0
0.287 0.193 0
0.288 0.193 0
0.289 0.193 0
0.29 0.193 0
0.291 0.193 0
0.292 0.193 0.732
0.293 0.193 0
0.294 0.193 0
0.295 0.193 0
0.296 0.193 0
0.297 0.193 0.561
0.298 0.193 0
0.299 0.193 0
0.3 0.193 0
0.301 0.193 0
0.302 0.193 0
0.303 0.193 0
0.304 0.193 0
0.305 0.193 0
0.306 0.193 0
0.307 0.193 0
0.308 0.193 0
0.309 0.193 0
0.31 0.193 0
0.311 0.193 0
0.312 0.193 0
0.313 0.193 0
0.314 0.193 0
0.315 0.193 0
0.316 0.193 0
0.317 0.193 0
0.318 0.193 0
0.319 0.193 0
0.32 0.193 0.938
0.321 0.193 0.942
0.322 0.193 0.943
0.323 0.193 0.948
0.324 0.193 0.948
0.325 0.193 0.949
0.326 0.193 0.949
0.327 0.193 0.951
0.328 0.193 0.956
0.329 0.193 0.956
0.33 0.193 0.958
0.331 0.193 0.957
0.332 0.193 0.96
0.333 0.193 0.962
0.334 0.193 0.962
0.335 0.193 0.963
0.336 0.193 0.964
0.337 0.193 0.966
0.338 0.193 0.966
0.339 0.193 0.966
0.34 0.193 0.967
0.341 0.193 0.969
0.342 0.193 0.972
0.343 0.193 0.973
0.344 0.193 0.975
0.345 0.193 0.976
0.346 0.193 0.978
0.347 0.193 0.978
0.348 0.193 0.981
0.349 0.193 0.983
0.35 0.193 0.984
0.351 0.193 0.986
0.352 0.193 0.987
0.353 0.193 0.988
0.354 0.193 0.989
0.355 0.193 0.991
0.356 0.193 0.994
0.357 0.193 0.996
0.358 0.193 0.998
0.359 0.193 0.997
0.36 0.193 0.998
0.361 0.193 1.001
0.362 0.193 1.002
0.363 0.193 1.003
0.364 0.193 1.004
0.365 0.193 1.007
0.366 0.193 1.008
0.367 0.193 1.01
0.368 0.193 1.01
0.369 0.193 1.011
0.37 0.193 1.013
0.371 0.193 1.016
0.372 0.193 1.019
0.373 0.193 1.02
0.374 0.193 1.02
0.375 0.193 1.02
0.376 0.193 1.021
0.377 0.193 1.023
0.477 0.193 0
0.478 0.193 0
0.479 0.193 0.678
0.48 0.193 0.663
0.481 0.193 0.655
0.482 0.193 0.671
0.483 0.193 0.709
0.484 0.193 0.706
0.485 0.193 0.695
0.486 0.193 0.685
0.487 0.193 0.678
0.488 0.193 0.675
0.489 0.193 0.67
0.49 0.193 0.664
0.491 0.193 0.658
0.492 0.193 0.655
0.493 0.193 0.656
0.494 0.193 0.657
0.495 0.193 0.658
0.496 0.193 0.658
0.497 0.193 0.659
0.498 0.193 0.66
0.499 0.193 0.661
0.5 0.193 0.662
0.501 0.193 0.663
0.502 0.193 0.663
0.503 0.193 0.662
0.504 0.193 0.661
0.505 0.193 0.661
0.506 0.193 0.66
0.507 0.193 0.658
0.508 0.193 0.653
0.509 0.193 0.651
0.51 0.193 0.648
0.511 0.193 0.648
0.512 0.193 0.648
0 0.194 0
0.001 0.194 0.649
0.002 0.194 0.649
0.003 0.194 0.65
0.004 0.194 0.649
0.005 0.194 0.651
0.006 0.194 0.652
0.007 0.194 0.653
0.008 0.194 0.653
0.009 0.194 0.655
0.010 0.194 0.658
0.011 0.194 0.662
0.012 0.194 0.663
0.013 0.194 0.663
0.014 0.194 0.661
0.015 0.194 0.659
0.016 0.194 0.659
0.017 0.194 0.658
0.018 0.194 0
0.019 0.194 0
0.02 0.194 0
0.021 0.194 0.657
0.022 0.194 0.658
0.023 0.194 0
0.024 0.194 0
0.025 0.194 0
0.026 0.194 0.659
0.027 0.194 0.66
0.028 0.194 0.66
0.029 0.194 0.66
0.03 0.194 0.661
0.031 0.194 0.663
0.032 0.194 0.665
0.033 0.194 0.667
0.034 0.194 0.67
0.035 0.194 0.671
0.036 0.194 0.671
0.037 0.194 0.671
0.038 0.194 0.672
0.039 0.194 0
0.04 0.194 0.669
0.041 0.194 0.667
0.042 0.194 0.666
0.043 0.194 0.665
0.044 0.194 0.666
0.045 0.194 0.666
0.046 0.194 0.667
0.047 0.194 0.666
0.048 0.194 0.666
0.049 0.194 0.669
0.05 0.194 0.672
0.051 0.194 0.673
0.052 0.194 0
0.053 0.194 0
0.054 0.194 0
0.055 0.194 0
0.056 0.194 0
0.057 0.194 0
0.058 0.194 0
0.059 0.194 0
0.06 0.194 0
0.061 0.194 0
0.062 0.194 0
0.063 0.194 0
0.064 0.194 0
0.065 0.194 0
0.066 0.194 0
0.067 0.194 0
0.068 0.194 0
0.069 0.194 0
0.07 0.194 0
0.071 0.194 0
0.072 0.194 0
0.073 0.194 0
0.074 0.194 0.663
0.075 0.194 0
0.076 0.194 0
0.077 0.194 0.66
0.078 0.194 0.66
0.079 0.194 0.659
0.08 0.194 0.657
0.081 0.194 0.654
0.082 0.194 0.652
0.083 0.194 0.651
0.084 0.194 0.65
0.085 0.194 0.649
0.086 0.194 0.647
0.087 0.194 0
0.088 0.194 0
0.089 0.194 0
0.09 0.194 0
0.091 0.194 0
0.092 0.194 0
0.093 0.194 0
0.094 0.194 0
0.095 0.194 0
0.096 0.194 0
0.097 0.194 0
0.098 0.194 0
0.099 0.194 0
0.1 0.194 0
0.101 0.194 0
0.102 0.194 0
0.103 0.194 0
0.104 0.194 0
0.105 0.194 0
0.106 0.194 0.635
0.107 0.194 0
0.108 0.194 0
0.109 0.194 0
0.11 0.194 0
0.111 0.194 0
0.112 0.194 0
0.113 0.194 0
0.114 0.194 0.641
0.115 0.194 0.644
0.116 0.194 0.646
0.117 0.194 0.647
0.118 0.194 0.648
0.119 0.194 0
0.12 0.194 0.651
0.121 0.194 0.652
0.122 0.194 0.653
0.123 0.194 0.654
0.124 0.194 0.656
0.125 0.194 0.657
0.126 0.194 0.657
0.127 0.194 0.659
0.128 0.194 0.661
0.129 0.194 0.664
0.13 0.194 0.665
0.131 0.194 0.666
0.132 0.194 0.666
0.133 0.194 0.668
0.134 0.194 0.67
0.135 0.194 0.671
0.136 0.194 0.673
0.137 0.194 0.675
0.138 0.194 0.678
0.139 0.194 0.678
0.14 0.194 0.679
0.141 0.194 0.68
0.142 0.194 0.683
0.143 0.194 0.684
0.144 0.194 0.685
0.145 0.194 0.685
0.146 0.194 0.686
0.147 0.194 0.687
0.148 0.194 0.686
0.149 0.194 0.687
0.15 0.194 0.687
0.151 0.194 0.686
0.152 0.194 0.687
0.153 0.194 0.69
0.154 0.194 0.695
0.155 0.194 0.696
0.156 0.194 0.696
0.157 0.194 0.695
0.158 0.194 0.695
0.159 0.194 0.695
0.16 0.194 0.695
0.161 0.194 0.696
0.162 0.194 0.696
0.163 0.194 0.695
0.164 0.194 0.694
0.165 0.194 0.692
0.166 0.194 0.692
0.167 0.194 0.693
0.168 0.194 0.696
0.169 0.194 0.698
0.17 0.194 0.697
0.171 0.194 0.693
0.172 0.194 0.689
0.173 0.194 0.685
0.174 0.194 0.681
0.175 0.194 0.676
0.176 0.194 0.673
0.177 0.194 0.671
0.178 0.194 0.67
0.179 0.194 0.667
0.18 0.194 0.666
0.181 0.194 0.667
0.182 0.194 0.667
0.183 0.194 0.667
0.184 0.194 0.667
0.185 0.194 0.668
0.186 0.194 0.668
0.187 0.194 0.668
0.188 0.194 0.668
0.189 0.194 0.667
0.19 0.194 0.664
0.191 0.194 0.663
0.192 0.194 0.663
0.193 0.194 0.666
0.194 0.194 0.666
0.195 0.194 0.667
0.196 0.194 0.668
0.197 0.194 0.667
0.198 0.194 0.666
0.199 0.194 0.666
0.2 0.194 0.669
0.201 0.194 0.674
0.202 0.194 0.679
0.203 0.194 0.679
0.204 0.194 0.68
0.205 0.194 0.678
0.206 0.194 0.678
0.207 0.194 0.679
0.208 0.194 0.68
0.209 0.194 0.68
0.21 0.194 0.678
0.211 0.194 0.678
0.212 0.194 0.677
0.213 0.194 0.678
0.214 0.194 0.678
0.215 0.194 0.677
0.216 0.194 0.676
0.217 0.194 0.676
0.218 0.194 0.677
0.219 0.194 0.677
0.22 0.194 0.679
0.221 0.194 0.679
0.222 0.194 0.681
0.223 0.194 0.683
0.224 0.194 0.684
0.225 0.194 0.683
0.226 0.194 0.683
0.227 0.194 0.684
0.228 0.194 0.685
0.229 0.194 0.688
0.23 0.194 0.689
0.231 0.194 0.691
0.232 0.194 0.692
0.233 0.194 0.695
0.234 0.194 0.697
0.235 0.194 0.701
0.236 0.194 0.708
0.237 0.194 0.726
0.238 0.194 0
0.239 0.194 0
0.24 0.194 0
0.241 0.194 0
0.242 0.194 0.722
0.243 0.194 0.713
0.244 0.194 0.705
0.245 0.194 0.69
0.246 0.194 0.675
0.247 0.194 0.663
0.248 0.194 0.657
0.249 0.194 0.651
0.25 0.194 0.639
0.251 0.194 0.62
0.252 0.194 0.635
0.253 0.194 0.617
0.254 0.194 0.656
0.255 0.194 0.661
0.256 0.194 0.656
0.257 0.194 0.656
0.258 0.194 0.658
0.259 0.194 0.646
0.26 0.194 0.639
0.261 0.194 0.636
0.262 0.194 0.652
0.263 0.194 0.683
0.264 0.194 0.636
0.265 0.194 0.629
0.266 0.194 0.635
0.267 0.194 0
0.268 0.194 0.628
0.269 0.194 0
0.27 0.194 0
0.271 0.194 0
0.272 0.194 0.673
0.273 0.194 0
0.274 0.194 0
0.275 0.194 0.658
0.276 0.194 0
0.277 0.194 0
0.279 0.194 0
0.28 0.194 0
0.281 0.194 0
0.282 0.194 0
0.283 0.194 0
0.284 0.194 0
0.285 0.194 0
0.286 0.194 0
0.287 0.194 0
0.288 0.194 0
0.289 0.194 0.545
0.29 0.194 0
0.291 0.194 0
0.292 0.194 0
0.293 0.194 0
0.294 0.194 0
0.295 0.194 0.581
0.296 0.194 0.57
0.297 0.194 0
0.298 0.194 0
0.299 0.194 0
0.3 0.194 0
0.301 0.194 0
0.302 0.194 0
0.303 0.194 0
0.304 0.194 0
0.305 0.194 0
0.306 0.194 0
0.307 0.194 0
0.308 0.194 0
0.309 0.194 0
0.31 0.194 0
0.311 0.194 0
0.312 0.194 0
0.313 0.194 0
0.314 0.194 0
0.315 0.194 0
0.316 0.194 0.56
0.317 0.194 0
0.318 0.194 0
0.319 0.194 0.939
0.32 0.194 0.942
0.321 0.194 0.941
0.322 0.194 0.945
0.323 0.194 0.946
0.324 0.194 0.949
0.325 0.194 0.951
0.326 0.194 0.952
0.327 0.194 0.957
0.328 0.194 0.955
0.329 0.194 0.957
0.33 0.194 0.956
0.331 0.194 0.96
0.332 0.194 0.962
0.333 0.194 0.961
0.334 0.194 0.963
0.335 0.194 0.962
0.336 0.194 0.966
0.337 0.194 0.967
0.338 0.194 0.968
0.339 0.194 0.968
0.34 0.194 0.969
0.341 0.194 0.971
0.342 0.194 0.972
0.343 0.194 0.974
0.344 0.194 0.975
0.345 0.194 0.977
0.346 0.194 0.977
0.347 0.194 0.98
0.348 0.194 0.982
0.349 0.194 0.984
0.35 0.194 0.985
0.351 0.194 0.985
0.352 0.194 0.986
0.353 0.194 0.989
0.354 0.194 0.992
0.355 0.194 0.994
0.356 0.194 0.997
0.357 0.194 0.998
0.358 0.194 0.997
0.359 0.194 0.997
0.36 0.194 0.999
0.361 0.194 1.002
0.362 0.194 1.002
0.363 0.194 1.003
0.364 0.194 1.005
0.365 0.194 1.008
0.366 0.194 1.009
0.367 0.194 1.01
0.368 0.194 1.01
0.369 0.194 1.012
0.37 0.194 1.014
0.371 0.194 1.018
0.372 0.194 1.02
0.373 0.194 1.02
0.374 0.194 1.02
0.375 0.194 1.021
0.376 0.194 1.023
0.377 0.194 1.024
0.475 0.194 0
0.476 0.194 0
0.477 0.194 0.679
0.478 0.194 0.671
0.479 0.194 0.664
0.48 0.194 0.661
0.481 0.194 0.687
0.482 0.194 0.714
0.483 0.194 0.705
0.484 0.194 0.692
0.485 0.194 0.681
0.486 0.194 0.675
0.487 0.194 0.672
0.488 0.194 0.666
0.489 0.194 0.661
0.49 0.194 0.656
0.491 0.194 0.654
0.492 0.194 0.654
0.493 0.194 0.655
0.494 0.194 0.656
0.495 0.194 0.657
0.496 0.194 0.659
0.497 0.194 0.661
0.498 0.194 0.662
0.499 0.194 0.663
0.5 0.194 0.664
0.501 0.194 0.663
0.502 0.194 0.661
0.503 0.194 0.66
0.504 0.194 0.661
0.505 0.194 0.66
0.506 0.194 0.658
0.507 0.194 0.652
0.508 0.194 0.65
0.509 0.194 0.647
0.51 0.194 0.647
0.511 0.194 0.648
0.512 0.194 0.649
0 0.195 0.649
0.001 0.195 0.647
0.002 0.195 0.647
0.003 0.195 0.647
0.004 0.195 0.651
0.005 0.195 0.651
0.006 0.195 0.652
0.007 0.195 0.652
0.008 0.195 0.654
0.009 0.195 0.656
0.010 0.195 0.66
0.011 0.195 0.661
0.012 0.195 0
0.013 0.195 0.659
0.014 0.195 0.658
0.015 0.195 0.658
0.016 0.195 0
0.017 0.195 0
0.018 0.195 0
0.019 0.195 0.655
0.02 0.195 0.656
0.021 0.195 0
0.022 0.195 0
0.023 0.195 0
0.024 0.195 0
0.025 0.195 0.658
0.026 0.195 0.658
0.027 0.195 0.657
0.028 0.195 0.657
0.029 0.195 0.657
0.03 0.195 0.661
0.031 0.195 0.663
0.032 0.195 0.666
0.033 0.195 0.668
0.034 0.195 0.67
0.035 0.195 0.669
0.036 0.195 0.67
0.037 0.195 0.67
0.038 0.195 0.67
0.039 0.195 0.668
0.04 0.195 0.665
0.041 0.195 0.664
0.042 0.195 0.664
0.043 0.195 0.664
0.044 0.195 0.664
0.045 0.195 0.664
0.046 0.195 0.663
0.047 0.195 0.663
0.048 0.195 0.666
0.049 0.195 0.668
0.05 0.195 0.67
0.051 0.195 0.671
0.052 0.195 0.672
0.053 0.195 0.671
0.054 0.195 0
0.055 0.195 0
0.056 0.195 0
0.057 0.195 0
0.058 0.195 0
0.059 0.195 0
0.06 0.195 0
0.061 0.195 0
0.062 0.195 0
0.063 0.195 0
0.064 0.195 0
0.065 0.195 0
0.066 0.195 0
0.067 0.195 0
0.068 0.195 0
0.069 0.195 0
0.07 0.195 0
0.071 0.195 0
0.072 0.195 0
0.073 0.195 0
0.074 0.195 0
0.075 0.195 0
0.076 0.195 0
0.077 0.195 0
0.078 0.195 0
0.079 0.195 0
0.08 0.195 0.659
0.081 0.195 0
0.082 0.195 0
0.083 0.195 0.656
0.084 0.195 0
0.085 0.195 0
0.086 0.195 0.651
0.087 0.195 0
0.088 0.195 0
0.089 0.195 0
0.09 0.195 0.642
0.091 0.195 0
0.092 0.195 0
0.093 0.195 0
0.094 0.195 0
0.095 0.195 0.634
0.096 0.195 0
0.097 0.195 0
0.098 0.195 0
0.099 0.195 0
0.1 0.195 0
0.101 0.195 0
0.102 0.195 0
0.103 0.195 0
0.104 0.195 0
0.105 0.195 0
0.106 0.195 0
0.107 0.195 0.635
0.108 0.195 0
0.109 0.195 0
0.11 0.195 0
0.111 0.195 0
0.112 0.195 0
0.113 0.195 0
0.114 0.195 0
0.115 0.195 0.647
0.116 0.195 0.648
0.117 0.195 0.648
0.118 0.195 0.65
0.119 0.195 0.651
0.12 0.195 0.652
0.121 0.195 0.654
0.122 0.195 0.655
0.123 0.195 0.658
0.124 0.195 0.658
0.125 0.195 0.659
0.126 0.195 0.66
0.127 0.195 0.662
0.128 0.195 0.665
0.129 0.195 0.665
0.13 0.195 0.668
0.131 0.195 0.667
0.132 0.195 0.669
0.133 0.195 0.67
0.134 0.195 0.673
0.135 0.195 0.673
0.136 0.195 0.676
0.137 0.195 0.677
0.138 0.195 0.678
0.139 0.195 0.678
0.14 0.195 0.68
0.141 0.195 0.683
0.142 0.195 0.684
0.143 0.195 0.685
0.144 0.195 0.685
0.145 0.195 0.686
0.146 0.195 0.686
0.147 0.195 0.685
0.148 0.195 0.684
0.149 0.195 0.684
0.15 0.195 0.685
0.151 0.195 0.686
0.152 0.195 0.689
0.153 0.195 0.691
0.154 0.195 0.694
0.155 0.195 0.694
0.156 0.195 0.693
0.157 0.195 0.692
0.158 0.195 0.693
0.159 0.195 0.694
0.16 0.195 0.695
0.161 0.195 0.695
0.162 0.195 0.694
0.163 0.195 0.693
0.164 0.195 0.691
0.165 0.195 0
0.166 0.195 0.69
0.167 0.195 0.692
0.168 0.195 0.696
0.169 0.195 0.695
0.17 0.195 0.691
0.171 0.195 0.685
0.172 0.195 0.681
0.173 0.195 0.677
0.174 0.195 0.672
0.175 0.195 0.668
0.176 0.195 0.668
0.177 0.195 0.667
0.178 0.195 0.667
0.179 0.195 0.666
0.18 0.195 0.666
0.181 0.195 0.667
0.182 0.195 0.666
0.183 0.195 0.665
0.184 0.195 0.665
0.185 0.195 0.666
0.186 0.195 0.666
0.187 0.195 0.666
0.188 0.195 0.667
0.189 0.195 0.664
0.19 0.195 0.664
0.191 0.195 0.663
0.192 0.195 0.664
0.193 0.195 0.664
0.194 0.195 0.665
0.195 0.195 0.664
0.196 0.195 0.664
0.197 0.195 0.663
0.198 0.195 0.665
0.199 0.195 0.668
0.2 0.195 0.674
0.201 0.195 0.679
0.202 0.195 0.68
0.203 0.195 0.68
0.204 0.195 0.678
0.205 0.195 0.678
0.206 0.195 0.679
0.207 0.195 0.679
0.208 0.195 0.679
0.209 0.195 0.677
0.21 0.195 0.677
0.211 0.195 0.676
0.212 0.195 0.677
0.213 0.195 0.676
0.214 0.195 0.677
0.215 0.195 0.675
0.216 0.195 0.674
0.217 0.195 0.675
0.218 0.195 0.675
0.219 0.195 0.676
0.22 0.195 0.677
0.221 0.195 0.681
0.222 0.195 0.682
0.223 0.195 0.681
0.224 0.195 0.681
0.225 0.195 0.682
0.226 0.195 0.684
0.227 0.195 0.685
0.228 0.195 0.686
0.229 0.195 0.687
0.23 0.195 0.688
0.231 0.195 0.69
0.232 0.195 0.692
0.233 0.195 0.695
0.234 0.195 0.698
0.235 0.195 0.7
0.236 0.195 0.706
0.237 0.195 0.723
0.238 0.195 0
0.239 0.195 0
0.24 0.195 0
0.241 0.195 0.724
0.242 0.195 0.714
0.243 0.195 0.708
0.244 0.195 0.694
0.245 0.195 0.681
0.246 0.195 0.665
0.247 0.195 0.66
0.248 0.195 0.651
0.249 0.195 0.647
0.25 0.195 0.641
0.251 0.195 0.638
0.252 0.195 0.647
0.253 0.195 0.633
0.254 0.195 0.654
0.255 0.195 0.66
0.256 0.195 0.676
0.257 0.195 0.659
0.258 0.195 0.629
0.259 0.195 0.647
0.26 0.195 0.656
0.261 0.195 0.657
0.262 0.195 0.652
0.263 0.195 0.675
0.264 0.195 0.653
0.265 0.195 0.646
0.266 0.195 0.629
0.267 0.195 0.653
0.268 0.195 0
0.269 0.195 0
0.27 0.195 0
0.271 0.195 0
0.272 0.195 0
0.273 0.195 0
0.274 0.195 0
0.275 0.195 0.641
0.276 0.195 0
0.277 0.195 0
0.278 0.195 0
0.279 0.195 0
0.28 0.195 0
0.281 0.195 0
0.282 0.195 0.502
0.283 0.195 0
0.284 0.195 0
0.285 0.195 0
0.286 0.195 0.559
0.287 0.195 0
0.288 0.195 0
0.289 0.195 0
0.29 0.195 0
0.291 0.195 0
0.292 0.195 0
0.293 0.195 0
0.294 0.195 0
0.295 0.195 0
0.296 0.195 0
0.297 0.195 0
0.298 0.195 0
0.299 0.195 0.546
0.3 0.195 0
0.301 0.195 0
0.302 0.195 0
0.303 0.195 0
0.304 0.195 0
0.305 0.195 0
0.306 0.195 0
0.307 0.195 0
0.308 0.195 0
0.309 0.195 0
0.31 0.195 0
0.311 0.195 0
0.312 0.195 0
0.313 0.195 0
0.314 0.195 0
0.315 0.195 0
0.316 0.195 0
0.317 0.195 0
0.318 0.195 0.94
0.319 0.195 0.943
0.32 0.195 0.942
0.321 0.195 0.945
0.322 0.195 0.944
0.323 0.195 0.947
0.324 0.195 0.949
0.325 0.195 0.951
0.326 0.195 0.955
0.327 0.195 0.956
0.328 0.195 0.957
0.329 0.195 0.956
0.33 0.195 0.958
0.331 0.195 0.961
0.332 0.195 0.961
0.333 0.195 0.96
0.334 0.195 0.959
0.335 0.195 0.963
0.336 0.195 0.966
0.337 0.195 0.969
0.338 0.195 0.969
0.339 0.195 0.97
0.34 0.195 0.969
0.341 0.195 0.971
0.342 0.195 0.975
0.343 0.195 0.977
0.344 0.195 0.977
0.345 0.195 0.978
0.346 0.195 0.98
0.347 0.195 0.982
0.348 0.195 0.983
0.349 0.195 0.984
0.35 0.195 0.985
0.351 0.195 0.986
0.352 0.195 0.989
0.353 0.195 0.991
0.354 0.195 0.991
0.355 0.195 0.994
0.356 0.195 0.995
0.357 0.195 0.996
0.358 0.195 0.996
0.359 0.195 0.998
0.36 0.195 1
0.361 0.195 1.001
0.362 0.195 1.003
0.363 0.195 1.004
0.364 0.195 1.007
0.365 0.195 1.008
0.366 0.195 1.009
0.367 0.195 1.009
0.368 0.195 1.011
0.369 0.195 1.014
0.37 0.195 1.017
0.371 0.195 1.018
0.372 0.195 1.018
0.373 0.195 1.019
0.374 0.195 1.02
0.375 0.195 1.023
0.474 0.195 0
0.475 0.195 0.693
0.476 0.195 0.67
0.477 0.195 0.664
0.478 0.195 0.661
0.479 0.195 0.666
0.48 0.195 0.699
0.481 0.195 0.711
0.482 0.195 0.7
0.483 0.195 0.688
0.484 0.195 0.678
0.485 0.195 0.672
0.486 0.195 0.667
0.487 0.195 0.662
0.488 0.195 0.659
0.489 0.195 0.655
0.49 0.195 0.655
0.491 0.195 0.654
0.492 0.195 0.655
0.493 0.195 0.655
0.494 0.195 0.658
0.495 0.195 0.659
0.496 0.195 0.661
0.497 0.195 0.661
0.498 0.195 0.663
0.499 0.195 0.664
0.5 0.195 0.662
0.501 0.195 0.661
0.502 0.195 0.66
0.503 0.195 0.661
0.504 0.195 0.661
0.505 0.195 0.658
0.506 0.195 0.653
0.507 0.195 0.649
0.508 0.195 0.647
0.509 0.195 0.647
0.51 0.195 0.647
0.511 0.195 0.648
0.512 0.195 0.647
0 0.196 0.646
0.001 0.196 0.646
0.002 0.196 0.647
0.003 0.196 0.649
0.004 0.196 0.65
0.005 0.196 0.651
0.006 0.196 0.65
0.007 0.196 0.652
0.008 0.196 0.655
0.009 0.196 0.658
0.010 0.196 0.66
0.011 0.196 0.66
0.012 0.196 0.662
0.013 0.196 0.659
0.014 0.196 0.659
0.015 0.196 0.657
0.016 0.196 0
0.017 0.196 0
0.018 0.196 0
0.019 0.196 0.655
0.02 0.196 0
0.021 0.196 0
0.022 0.196 0
0.023 0.196 0
0.024 0.196 0.657
0.025 0.196 0.657
0.026 0.196 0.656
0.027 0.196 0.656
0.028 0.196 0.656
0.029 0.196 0.658
0.03 0.196 0.66
0.031 0.196 0.663
0.032 0.196 0.666
0.033 0.196 0.668
0.034 0.196 0.668
0.035 0.196 0.669
0.036 0.196 0.67
0.037 0.196 0.669
0.038 0.196 0.667
0.039 0.196 0.665
0.04 0.196 0.664
0.041 0.196 0.663
0.042 0.196 0.663
0.043 0.196 0.662
0.044 0.196 0.661
0.045 0.196 0.659
0.046 0.196 0.661
0.047 0.196 0.662
0.048 0.196 0.665
0.049 0.196 0.666
0.05 0.196 0.668
0.051 0.196 0.67
0.052 0.196 0.671
0.053 0.196 0.669
0.054 0.196 0
0.055 0.196 0
0.056 0.196 0
0.057 0.196 0
0.058 0.196 0
0.059 0.196 0
0.06 0.196 0
0.061 0.196 0
0.062 0.196 0
0.063 0.196 0
0.064 0.196 0
0.065 0.196 0
0.066 0.196 0
0.067 0.196 0
0.068 0.196 0
0.069 0.196 0
0.07 0.196 0
0.071 0.196 0
0.072 0.196 0
0.073 0.196 0
0.074 0.196 0
0.075 0.196 0
0.076 0.196 0
0.077 0.196 0
0.078 0.196 0
0.079 0.196 0
0.08 0.196 0
0.081 0.196 0
0.082 0.196 0
0.083 0.196 0
0.084 0.196 0
0.085 0.196 0.655
0.086 0.196 0.654
0.087 0.196 0.652
0.088 0.196 0.65
0.089 0.196 0.648
0.09 0.196 0
0.091 0.196 0.644
0.092 0.196 0.643
0.093 0.196 0.641
0.094 0.196 0
0.095 0.196 0.638
0.096 0.196 0.638
0.097 0.196 0
0.098 0.196 0.634
0.099 0.196 0
0.1 0.196 0
0.101 0.196 0
0.102 0.196 0
0.103 0.196 0
0.104 0.196 0.634
0.105 0.196 0
0.106 0.196 0.635
0.107 0.196 0
0.108 0.196 0
0.109 0.196 0
0.11 0.196 0.64
0.111 0.196 0.642
0.112 0.196 0.644
0.113 0.196 0.645
0.114 0.196 0.648
0.115 0.196 0.647
0.116 0.196 0.65
0.117 0.196 0.651
0.118 0.196 0.653
0.119 0.196 0.653
0.12 0.196 0.655
0.121 0.196 0.656
0.122 0.196 0.659
0.123 0.196 0.659
0.124 0.196 0.662
0.125 0.196 0.661
0.126 0.196 0.663
0.127 0.196 0.664
0.128 0.196 0.665
0.129 0.196 0.668
0.13 0.196 0.669
0.131 0.196 0.67
0.132 0.196 0.672
0.133 0.196 0.674
0.134 0.196 0.674
0.135 0.196 0.675
0.136 0.196 0.677
0.137 0.196 0
0.138 0.196 0.679
0.139 0.196 0.68
0.14 0.196 0.681
0.141 0.196 0.683
0.142 0.196 0.683
0.143 0.196 0.684
0.144 0.196 0.685
0.145 0.196 0.684
0.146 0.196 0.683
0.147 0.196 0.681
0.148 0.196 0.681
0.149 0.196 0.682
0.15 0.196 0.684
0.151 0.196 0.687
0.152 0.196 0.69
0.153 0.196 0.691
0.154 0.196 0.693
0.155 0.196 0.692
0.156 0.196 0.691
0.157 0.196 0.691
0.158 0.196 0.692
0.159 0.196 0.692
0.16 0.196 0.693
0.161 0.196 0.693
0.162 0.196 0.693
0.163 0.196 0.691
0.164 0.196 0.69
0.165 0.196 0.69
0.166 0.196 0.692
0.167 0.196 0.694
0.168 0.196 0.693
0.169 0.196 0.689
0.17 0.196 0.684
0.171 0.196 0.68
0.172 0.196 0.676
0.173 0.196 0.67
0.174 0.196 0.666
0.175 0.196 0.665
0.176 0.196 0.665
0.177 0.196 0.665
0.178 0.196 0.664
0.179 0.196 0.664
0.18 0.196 0.665
0.181 0.196 0.664
0.182 0.196 0.663
0.183 0.196 0.662
0.184 0.196 0.663
0.185 0.196 0.663
0.186 0.196 0.664
0.187 0.196 0.663
0.188 0.196 0.662
0.189 0.196 0.663
0.19 0.196 0.662
0.191 0.196 0.662
0.192 0.196 0.661
0.193 0.196 0.662
0.194 0.196 0.662
0.195 0.196 0.663
0.196 0.196 0.663
0.197 0.196 0.665
0.198 0.196 0.668
0.199 0.196 0.674
0.2 0.196 0.679
0.201 0.196 0.679
0.202 0.196 0.679
0.203 0.196 0.677
0.204 0.196 0.678
0.205 0.196 0.678
0.206 0.196 0.678
0.207 0.196 0.678
0.208 0.196 0.676
0.209 0.196 0.676
0.21 0.196 0.676
0.211 0.196 0.676
0.212 0.196 0.676
0.213 0.196 0.675
0.214 0.196 0.674
0.215 0.196 0.673
0.216 0.196 0.673
0.217 0.196 0.673
0.218 0.196 0.674
0.219 0.196 0.676
0.22 0.196 0.679
0.221 0.196 0.68
0.222 0.196 0.68
0.223 0.196 0.681
0.224 0.196 0.682
0.225 0.196 0.683
0.226 0.196 0.684
0.227 0.196 0.684
0.228 0.196 0.685
0.229 0.196 0.685
0.23 0.196 0.687
0.231 0.196 0.69
0.232 0.196 0.693
0.233 0.196 0.695
0.234 0.196 0.696
0.235 0.196 0.699
0.236 0.196 0.704
0.237 0.196 0.719
0.238 0.196 0
0.239 0.196 0
0.24 0.196 0.722
0.241 0.196 0.712
0.242 0.196 0.71
0.243 0.196 0.698
0.244 0.196 0.686
0.245 0.196 0.67
0.246 0.196 0.664
0.247 0.196 0.655
0.248 0.196 0.654
0.249 0.196 0.647
0.25 0.196 0.652
0.251 0.196 0.641
0.252 0.196 0.644
0.253 0.196 0.645
0.254 0.196 0.668
0.255 0.196 0.669
0.256 0.196 0.637
0.257 0.196 0.621
0.258 0.196 0.653
0.259 0.196 0.661
0.26 0.196 0.646
0.261 0.196 0.695
0.262 0.196 0.671
0.263 0.196 0.675
0.264 0.196 0.632
0.265 0.196 0.641
0.266 0.196 0
0.267 0.196 0
0.268 0.196 0
0.269 0.196 0
0.27 0.196 0.692
0.271 0.196 0
0.272 0.196 0
0.273 0.196 0
0.274 0.196 0
0.275 0.196 0
0.276 0.196 0
0.277 0.196 0
0.278 0.196 0
0.279 0.196 0
0.28 0.196 0
0.281 0.196 0
0.282 0.196 0
0.283 0.196 0
0.284 0.196 0
0.285 0.196 0
0.286 0.196 0
0.287 0.196 0
0.288 0.196 0
0.289 0.196 0
0.29 0.196 0
0.291 0.196 0
0.292 0.196 0
0.293 0.196 0
0.294 0.196 0
0.295 0.196 0
0.296 0.196 0
0.297 0.196 0
0.298 0.196 0.637
0.299 0.196 0
0.3 0.196 0
0.301 0.196 0
0.302 0.196 0
0.303 0.196 0
0.304 0.196 0
0.305 0.196 0
0.306 0.196 0
0.307 0.196 0
0.308 0.196 0
0.309 0.196 0
0.31 0.196 0
0.311 0.196 0
0.312 0.196 0
0.313 0.196 0
0.314 0.196 0
0.315 0.196 0
0.316 0.196 0
0.317 0.196 0.939
0.318 0.196 0.942
0.319 0.196 0.943
0.32 0.196 0.945
0.321 0.196 0.946
0.322 0.196 0.947
0.323 0.196 0.949
0.324 0.196 0.951
0.325 0.196 0.954
0.326 0.196 0.955
0.327 0.196 0.955
0.328 0.196 0.954
0.329 0.196 0.957
0.33 0.196 0.958
0.331 0.196 0.959
0.332 0.196 0.96
0.333 0.196 0.961
0.334 0.196 0.963
0.335 0.196 0.966
0.336 0.196 0.97
0.337 0.196 0.971
0.338 0.196 0.97
0.339 0.196 0.968
0.34 0.196 0.969
0.341 0.196 0.972
0.342 0.196 0.975
0.343 0.196 0.977
0.344 0.196 0.979
0.345 0.196 0.981
0.346 0.196 0.981
0.347 0.196 0.983
0.348 0.196 0.983
0.349 0.196 0.986
0.35 0.196 0.986
0.351 0.196 0.988
0.352 0.196 0.99
0.353 0.196 0.99
0.354 0.196 0.993
0.355 0.196 0.994
0.356 0.196 0.996
0.357 0.196 0.997
0.358 0.196 0.999
0.359 0.196 1.002
0.36 0.196 1.003
0.361 0.196 1.005
0.362 0.196 1.005
0.363 0.196 1.006
0.364 0.196 1.006
0.365 0.196 1.006
0.366 0.196 1.008
0.367 0.196 1.01
0.368 0.196 1.013
0.369 0.196 1.014
0.37 0.196 1.017
0.371 0.196 1.018
0.372 0.196 1.02
0.373 0.196 1.021
0.374 0.196 1.023
0.375 0.196 1.024
0.473 0.196 0
0.474 0.196 0
0.475 0.196 0.656
0.476 0.196 0.646
0.477 0.196 0.652
0.478 0.196 0.673
0.479 0.196 0.713
0.48 0.196 0.708
0.481 0.196 0.697
0.482 0.196 0.684
0.483 0.196 0.675
0.484 0.196 0.669
0.485 0.196 0.666
0.486 0.196 0.66
0.487 0.196 0.658
0.488 0.196 0.655
0.489 0.196 0.654
0.49 0.196 0.653
0.491 0.196 0.653
0.492 0.196 0.655
0.493 0.196 0.658
0.494 0.196 0.66
0.495 0.196 0.662
0.496 0.196 0.662
0.497 0.196 0.663
0.498 0.196 0.663
0.499 0.196 0.662
0.5 0.196 0.661
0.501 0.196 0
0.502 0.196 0.661
0.503 0.196 0.662
0.504 0.196 0.659
0.505 0.196 0.654
0.506 0.196 0.649
0.507 0.196 0.646
0.508 0.196 0.646
0.509 0.196 0.646
0.51 0.196 0.647
0.511 0.196 0.647
0.512 0.196 0.647
0 0.197 0.646
0.001 0.197 0.646
0.002 0.197 0.646
0.003 0.197 0.649
0.004 0.197 0.65
0.005 0.197 0.65
0.006 0.197 0.652
0.007 0.197 0.653
0.008 0.197 0.656
0.009 0.197 0.659
0.010 0.197 0.661
0.011 0.197 0.662
0.012 0.197 0.658
0.013 0.197 0.658
0.014 0.197 0
0.015 0.197 0
0.016 0.197 0
0.017 0.197 0
0.018 0.197 0
0.019 0.197 0
0.02 0.197 0
0.021 0.197 0
0.022 0.197 0
0.023 0.197 0.657
0.024 0.197 0.656
0.025 0.197 0.655
0.026 0.197 0.654
0.027 0.197 0
0.028 0.197 0.656
0.029 0.197 0.658
0.03 0.197 0.662
0.031 0.197 0.665
0.032 0.197 0.666
0.033 0.197 0.666
0.034 0.197 0.668
0.035 0.197 0.668
0.036 0.197 0.669
0.037 0.197 0.665
0.038 0.197 0.664
0.039 0.197 0.664
0.04 0.197 0.663
0.041 0.197 0.662
0.042 0.197 0.659
0.043 0.197 0.658
0.044 0.197 0.657
0.045 0.197 0.659
0.046 0.197 0.66
0.047 0.197 0.661
0.048 0.197 0.661
0.049 0.197 0.663
0.05 0.197 0.667
0.051 0.197 0.668
0.052 0.197 0.668
0.053 0.197 0.666
0.054 0.197 0
0.055 0.197 0
0.056 0.197 0
0.057 0.197 0
0.058 0.197 0
0.059 0.197 0
0.06 0.197 0
0.061 0.197 0
0.062 0.197 0
0.063 0.197 0
0.064 0.197 0
0.065 0.197 0
0.066 0.197 0
0.067 0.197 0
0.068 0.197 0
0.069 0.197 0
0.07 0.197 0
0.071 0.197 0
0.072 0.197 0
0.073 0.197 0
0.074 0.197 0
0.075 0.197 0
0.076 0.197 0
0.077 0.197 0
0.078 0.197 0
0.079 0.197 0
0.08 0.197 0
0.081 0.197 0
0.082 0.197 0
0.083 0.197 0
0.084 0.197 0
0.085 0.197 0
0.086 0.197 0
0.087 0.197 0
0.088 0.197 0
0.089 0.197 0.652
0.09 0.197 0.65
0.091 0.197 0.649
0.092 0.197 0.648
0.093 0.197 0.646
0.094 0.197 0.644
0.095 0.197 0.641
0.096 0.197 0
0.097 0.197 0
0.098 0.197 0
0.099 0.197 0
0.1 0.197 0
0.101 0.197 0
0.102 0.197 0
0.103 0.197 0.634
0.104 0.197 0
0.105 0.197 0
0.106 0.197 0
0.107 0.197 0.64
0.108 0.197 0.642
0.109 0.197 0
0.11 0.197 0.644
0.111 0.197 0.645
0.112 0.197 0.646
0.113 0.197 0.647
0.114 0.197 0.648
0.115 0.197 0.651
0.116 0.197 0.652
0.117 0.197 0.654
0.118 0.197 0.655
0.119 0.197 0.657
0.12 0.197 0.658
0.121 0.197 0.66
0.122 0.197 0.661
0.123 0.197 0.664
0.124 0.197 0.663
0.125 0.197 0.664
0.126 0.197 0.665
0.127 0.197 0.666
0.128 0.197 0.668
0.129 0.197 0.669
0.13 0.197 0.673
0.131 0.197 0.674
0.132 0.197 0.675
0.133 0.197 0.673
0.134 0.197 0.675
0.135 0.197 0.677
0.136 0.197 0
0.137 0.197 0.679
0.138 0.197 0
0.139 0.197 0.681
0.14 0.197 0.683
0.141 0.197 0.684
0.142 0.197 0.684
0.143 0.197 0.684
0.144 0.197 0.683
0.145 0.197 0.682
0.146 0.197 0.68
0.147 0.197 0.679
0.148 0.197 0.68
0.149 0.197 0.684
0.15 0.197 0.687
0.151 0.197 0.688
0.152 0.197 0.689
0.153 0.197 0.691
0.154 0.197 0.69
0.155 0.197 0.69
0.156 0.197 0.689
0.157 0.197 0.69
0.158 0.197 0.69
0.159 0.197 0.69
0.16 0.197 0.69
0.161 0.197 0.69
0.162 0.197 0.691
0.163 0.197 0.691
0.164 0.197 0.692
0.165 0.197 0.693
0.166 0.197 0.696
0.167 0.197 0.694
0.168 0.197 0.688
0.169 0.197 0.682
0.17 0.197 0.677
0.171 0.197 0.673
0.172 0.197 0.67
0.173 0.197 0.666
0.174 0.197 0.664
0.175 0.197 0.662
0.176 0.197 0.661
0.177 0.197 0.662
0.178 0.197 0.663
0.179 0.197 0.664
0.18 0.197 0.662
0.181 0.197 0.661
0.182 0.197 0.66
0.183 0.197 0.661
0.184 0.197 0.662
0.185 0.197 0.661
0.186 0.197 0.662
0.187 0.197 0.662
0.188 0.197 0.663
0.189 0.197 0.662
0.19 0.197 0.661
0.191 0.197 0.659
0.192 0.197 0.66
0.193 0.197 0.659
0.194 0.197 0.661
0.195 0.197 0.662
0.196 0.197 0.665
0.197 0.197 0.667
0.198 0.197 0.673
0.199 0.197 0.677
0.2 0.197 0.678
0.201 0.197 0.677
0.202 0.197 0.676
0.203 0.197 0.676
0.204 0.197 0.677
0.205 0.197 0.677
0.206 0.197 0.676
0.207 0.197 0.674
0.208 0.197 0.674
0.209 0.197 0.674
0.21 0.197 0.675
0.211 0.197 0.674
0.212 0.197 0.675
0.213 0.197 0.673
0.214 0.197 0.674
0.215 0.197 0.674
0.216 0.197 0.675
0.217 0.197 0.674
0.218 0.197 0.675
0.219 0.197 0.678
0.22 0.197 0.681
0.221 0.197 0.682
0.222 0.197 0.682
0.223 0.197 0.681
0.224 0.197 0.681
0.225 0.197 0.682
0.226 0.197 0.683
0.227 0.197 0.683
0.228 0.197 0.684
0.229 0.197 0.686
0.23 0.197 0.688
0.231 0.197 0.69
0.232 0.197 0.691
0.233 0.197 0.693
0.234 0.197 0.696
0.235 0.197 0.699
0.236 0.197 0.703
0.237 0.197 0.709
0.238 0.197 0.714
0.239 0.197 0.713
0.24 0.197 0.711
0.241 0.197 0.709
0.242 0.197 0.7
0.243 0.197 0.688
0.244 0.197 0.671
0.245 0.197 0.666
0.246 0.197 0.663
0.247 0.197 0.661
0.248 0.197 0.654
0.249 0.197 0.646
0.25 0.197 0.641
0.251 0.197 0.639
0.252 0.197 0.643
0.253 0.197 0.636
0.254 0.197 0.64
0.255 0.197 0.637
0.256 0.197 0.626
0.257 0.197 0.622
0.258 0.197 0
0.259 0.197 0.669
0.26 0.197 0.671
0.261 0.197 0.712
0.262 0.197 0.632
0.263 0.197 0
0.264 0.197 0.635
0.265 0.197 0.636
0.266 0.197 0
0.267 0.197 0
0.268 0.197 0
0.269 0.197 0.698
0.27 0.197 0
0.271 0.197 0
0.272 0.197 0
0.273 0.197 0.658
0.274 0.197 0.718
0.275 0.197 0.697
0.276 0.197 0
0.277 0.197 0
0.278 0.197 0
0.279 0.197 0
0.28 0.197 0
0.281 0.197 0
0.282 0.197 0
0.283 0.197 0
0.284 0.197 0
0.285 0.197 0
0.286 0.197 0
0.287 0.197 0
0.288 0.197 0
0.289 0.197 0
0.29 0.197 0
0.291 0.197 0
0.292 0.197 0
0.293 0.197 0
0.294 0.197 0
0.295 0.197 0
0.296 0.197 0
0.297 0.197 0
0.298 0.197 0
0.299 0.197 0
0.3 0.197 0
0.301 0.197 0
0.302 0.197 0
0.303 0.197 0
0.304 0.197 0
0.305 0.197 0
0.306 0.197 0
0.307 0.197 0
0.308 0.197 0
0.309 0.197 0
0.31 0.197 0
0.311 0.197 0
0.312 0.197 0
0.313 0.197 0
0.314 0.197 0
0.315 0.197 0
0.316 0.197 0.939
0.317 0.197 0.942
0.318 0.197 0.943
0.319 0.197 0.944
0.32 0.197 0.945
0.321 0.197 0.948
0.322 0.197 0.948
0.323 0.197 0.95
0.324 0.197 0.953
0.325 0.197 0.955
0.326 0.197 0.954
0.327 0.197 0.953
0.328 0.197 0.955
0.329 0.197 0.956
0.33 0.197 0.959
0.331 0.197 0.96
0.332 0.197 0.963
0.333 0.197 0.965
0.334 0.197 0.967
0.335 0.197 0.971
0.336 0.197 0.972
0.337 0.197 0.971
0.338 0.197 0.969
0.339 0.197 0.97
0.34 0.197 0.972
0.341 0.197 0.975
0.342 0.197 0.975
0.343 0.197 0.979
0.344 0.197 0.98
0.345 0.197 0.983
0.346 0.197 0.984
0.347 0.197 0.985
0.348 0.197 0.986
0.349 0.197 0.987
0.35 0.197 0.988
0.351 0.197 0.988
0.352 0.197 0.99
0.353 0.197 0.993
0.354 0.197 0.995
0.355 0.197 0.996
0.356 0.197 0.997
0.357 0.197 0.998
0.358 0.197 1.001
0.359 0.197 1.002
0.36 0.197 1.005
0.361 0.197 1.004
0.362 0.197 1.005
0.363 0.197 1.005
0.364 0.197 1.007
0.365 0.197 1.01
0.366 0.197 1.011
0.367 0.197 1.013
0.368 0.197 1.014
0.369 0.197 1.016
0.37 0.197 1.019
0.371 0.197 1.021
0.372 0.197 1.021
0.373 0.197 1.023
0.374 0.197 1.023
0.471 0.197 0
0.472 0.197 0
0.473 0.197 0.659
0.474 0.197 0.645
0.475 0.197 0.642
0.476 0.197 0.65
0.477 0.197 0.691
0.478 0.197 0.715
0.479 0.197 0.706
0.48 0.197 0.693
0.481 0.197 0.68
0.482 0.197 0.67
0.483 0.197 0.664
0.484 0.197 0.661
0.485 0.197 0.658
0.486 0.197 0.656
0.487 0.197 0.654
0.488 0.197 0.653
0.489 0.197 0.652
0.49 0.197 0.651
0.491 0.197 0.654
0.492 0.197 0.656
0.493 0.197 0.658
0.494 0.197 0.659
0.495 0.197 0.66
0.496 0.197 0
0.497 0.197 0.661
0.498 0.197 0.662
0.499 0.197 0
0.5 0.197 0
0.501 0.197 0.66
0.502 0.197 0.661
0.503 0.197 0.659
0.504 0.197 0.656
0.505 0.197 0.65
0.506 0.197 0.647
0.507 0.197 0.645
0.508 0.197 0.645
0.509 0.197 0.645
0.51 0.197 0.646
0.511 0.197 0.646
0.512 0.197 0.645
0 0.198 0.645
0.001 0.198 0.646
0.002 0.198 0.647
0.003 0.198 0.648
0.004 0.198 0.648
0.005 0.198 0.65
0.006 0.198 0.652
0.007 0.198 0.655
0.008 0.198 0.657
0.009 0.198 0.659
0.010 0.198 0.66
0.011 0.198 0.658
0.012 0.198 0
0.013 0.198 0
0.014 0.198 0
0.015 0.198 0
0.016 0.198 0
0.017 0.198 0
0.018 0.198 0
0.019 0.198 0
0.02 0.198 0
0.021 0.198 0
0.022 0.198 0.658
0.023 0.198 0.657
0.024 0.198 0.656
0.025 0.198 0.655
0.026 0.198 0.655
0.027 0.198 0.655
0.028 0.198 0.657
0.029 0.198 0.661
0.03 0.198 0.665
0.031 0.198 0.666
0.032 0.198 0.665
0.033 0.198 0.666
0.034 0.198 0.666
0.035 0.198 0.666
0.036 0.198 0.664
0.037 0.198 0.664
0.038 0.198 0.664
0.039 0.198 0.664
0.04 0.198 0.662
0.041 0.198 0.659
0.042 0.198 0.658
0.043 0.198 0.656
0.044 0.198 0.657
0.045 0.198 0.657
0.046 0.198 0.658
0.047 0.198 0.658
0.048 0.198 0.659
0.049 0.198 0.662
0.05 0.198 0.664
0.051 0.198 0.666
0.052 0.198 0.666
0.053 0.198 0.667
0.054 0.198 0.666
0.055 0.198 0
0.056 0.198 0
0.057 0.198 0
0.058 0.198 0
0.059 0.198 0
0.06 0.198 0
0.061 0.198 0
0.062 0.198 0
0.063 0.198 0
0.064 0.198 0
0.065 0.198 0
0.066 0.198 0
0.067 0.198 0
0.068 0.198 0
0.069 0.198 0
0.07 0.198 0
0.071 0.198 0
0.072 0.198 0
0.073 0.198 0
0.074 0.198 0
0.075 0.198 0
0.076 0.198 0
0.077 0.198 0
0.078 0.198 0
0.079 0.198 0
0.08 0.198 0
0.081 0.198 0
0.082 0.198 0
0.083 0.198 0
0.084 0.198 0
0.085 0.198 0
0.086 0.198 0
0.087 0.198 0
0.088 0.198 0
0.089 0.198 0
0.09 0.198 0
0.091 0.198 0.652
0.092 0.198 0.651
0.093 0.198 0.65
0.094 0.198 0.647
0.095 0.198 0.644
0.096 0.198 0.641
0.097 0.198 0.639
0.098 0.198 0
0.099 0.198 0
0.1 0.198 0
0.101 0.198 0
0.102 0.198 0
0.103 0.198 0
0.104 0.198 0
0.105 0.198 0
0.106 0.198 0
0.107 0.198 0
0.108 0.198 0.643
0.109 0.198 0.646
0.11 0.198 0.646
0.111 0.198 0
0.112 0.198 0.647
0.113 0.198 0.649
0.114 0.198 0.652
0.115 0.198 0.653
0.116 0.198 0.655
0.117 0.198 0.657
0.118 0.198 0.659
0.119 0.198 0.659
0.12 0.198 0.661
0.121 0.198 0.662
0.122 0.198 0.664
0.123 0.198 0.664
0.124 0.198 0.665
0.125 0.198 0.667
0.126 0.198 0.668
0.127 0.198 0.669
0.128 0.198 0.67
0.129 0.198 0.673
0.13 0.198 0.673
0.131 0.198 0.673
0.132 0.198 0.673
0.133 0.198 0.676
0.134 0.198 0.678
0.135 0.198 0
0.136 0.198 0.68
0.137 0.198 0.679
0.138 0.198 0.68
0.139 0.198 0.682
0.14 0.198 0.683
0.141 0.198 0.683
0.142 0.198 0.682
0.143 0.198 0.682
0.144 0.198 0.681
0.145 0.198 0.679
0.146 0.198 0.678
0.147 0.198 0.679
0.148 0.198 0.682
0.149 0.198 0.686
0.15 0.198 0.687
0.151 0.198 0.687
0.152 0.198 0.689
0.153 0.198 0.689
0.154 0.198 0.689
0.155 0.198 0.687
0.156 0.198 0.688
0.157 0.198 0.689
0.158 0.198 0.689
0.159 0.198 0.689
0.16 0.198 0.689
0.161 0.198 0.69
0.162 0.198 0.69
0.163 0.198 0.692
0.164 0.198 0.694
0.165 0.198 0.694
0.166 0.198 0.692
0.167 0.198 0.686
0.168 0.198 0.681
0.169 0.198 0.676
0.17 0.198 0.671
0.171 0.198 0.668
0.172 0.198 0.666
0.173 0.198 0.664
0.174 0.198 0.661
0.175 0.198 0.659
0.176 0.198 0.658
0.177 0.198 0.657
0.178 0.198 0.658
0.179 0.198 0.659
0.18 0.198 0.66
0.181 0.198 0.659
0.182 0.198 0.66
0.183 0.198 0.66
0.184 0.198 0.661
0.185 0.198 0.661
0.186 0.198 0.661
0.187 0.198 0.661
0.188 0.198 0.661
0.189 0.198 0.66
0.19 0.198 0.659
0.191 0.198 0.659
0.192 0.198 0.66
0.193 0.198 0.661
0.194 0.198 0.662
0.195 0.198 0.662
0.196 0.198 0.665
0.197 0.198 0.671
0.198 0.198 0.675
0.199 0.198 0.675
0.2 0.198 0.675
0.201 0.198 0.676
0.202 0.198 0.677
0.203 0.198 0.676
0.204 0.198 0.676
0.205 0.198 0.675
0.206 0.198 0.674
0.207 0.198 0.673
0.208 0.198 0.674
0.209 0.198 0.674
0.21 0.198 0.674
0.211 0.198 0.674
0.212 0.198 0.673
0.213 0.198 0.674
0.214 0.198 0.674
0.215 0.198 0.674
0.216 0.198 0.672
0.217 0.198 0.672
0.218 0.198 0.674
0.219 0.198 0.678
0.22 0.198 0.682
0.221 0.198 0.682
0.222 0.198 0.682
0.223 0.198 0.679
0.224 0.198 0.68
0.225 0.198 0.679
0.226 0.198 0.681
0.227 0.198 0.682
0.228 0.198 0.684
0.229 0.198 0.686
0.23 0.198 0.687
0.231 0.198 0.688
0.232 0.198 0.691
0.233 0.198 0.694
0.234 0.198 0.696
0.235 0.198 0.698
0.236 0.198 0.699
0.237 0.198 0.702
0.238 0.198 0.705
0.239 0.198 0.709
0.24 0.198 0.711
0.241 0.198 0.704
0.242 0.198 0.692
0.243 0.198 0.675
0.244 0.198 0.671
0.245 0.198 0.669
0.246 0.198 0.662
0.247 0.198 0.645
0.248 0.198 0.634
0.249 0.198 0.634
0.25 0.198 0.65
0.251 0.198 0.641
0.252 0.198 0.632
0.253 0.198 0.625
0.254 0.198 0.648
0.255 0.198 0.631
0.256 0.198 0.625
0.257 0.198 0.629
0.258 0.198 0.627
0.259 0.198 0.656
0.26 0.198 0.671
0.261 0.198 0.624
0.262 0.198 0.591
0.263 0.198 0.617
0.264 0.198 0.61
0.265 0.198 0
0.266 0.198 0
0.267 0.198 0
0.268 0.198 0.692
0.269 0.198 0
0.27 0.198 0
0.271 0.198 0.714
0.272 0.198 0.627
0.273 0.198 0.62
0.274 0.198 0.671
0.275 0.198 0
0.276 0.198 0
0.277 0.198 0
0.278 0.198 0
0.279 0.198 0.592
0.28 0.198 0
0.281 0.198 0.508
0.282 0.198 0
0.283 0.198 0
0.284 0.198 0.525
0.285 0.198 0
0.286 0.198 0
0.287 0.198 0
0.288 0.198 0
0.289 0.198 0
0.29 0.198 0
